   1.3450000e+03   1.0000000e+03  -9.9010928e+00
   1.3450000e+03   1.0150000e+03  -9.9004119e+00
   1.3450000e+03   1.0300000e+03  -9.9009062e+00
   1.3450000e+03   1.0450000e+03  -9.8999744e+00
   1.3450000e+03   1.0600000e+03  -9.9000918e+00
   1.3450000e+03   1.0750000e+03  -9.8995967e+00
   1.3450000e+03   1.0900000e+03  -9.9001359e+00
   1.3600000e+03   1.0000000e+02  -9.8988008e+00
   1.3600000e+03   1.1500000e+02  -9.8997909e+00
   1.3600000e+03   1.3000000e+02  -9.8988098e+00
   1.3600000e+03   1.4500000e+02  -9.8981385e+00
   1.3600000e+03   1.6000000e+02  -9.8987568e+00
   1.3600000e+03   1.7500000e+02  -9.8991106e+00
   1.3600000e+03   1.9000000e+02  -9.8987431e+00
   1.3600000e+03   2.0500000e+02  -9.8983397e+00
   1.3600000e+03   2.2000000e+02  -9.8985232e+00
   1.3600000e+03   2.3500000e+02  -9.8995399e+00
   1.3600000e+03   2.5000000e+02  -9.8997461e+00
   1.3600000e+03   2.6500000e+02  -9.8980167e+00
   1.3600000e+03   2.8000000e+02  -9.8996581e+00
   1.3600000e+03   2.9500000e+02  -9.8993706e+00
   1.3600000e+03   3.1000000e+02  -9.8982119e+00
   1.3600000e+03   3.2500000e+02  -9.8994816e+00
   1.3600000e+03   3.4000000e+02  -9.8993582e+00
   1.3600000e+03   3.5500000e+02  -9.8981107e+00
   1.3600000e+03   3.7000000e+02  -9.8993865e+00
   1.3600000e+03   3.8500000e+02  -9.8991985e+00
   1.3600000e+03   4.0000000e+02  -9.8987355e+00
   1.3600000e+03   4.1500000e+02  -9.8994489e+00
   1.3600000e+03   4.3000000e+02  -9.8994825e+00
   1.3600000e+03   4.4500000e+02  -9.8995086e+00
   1.3600000e+03   4.6000000e+02  -9.8998643e+00
   1.3600000e+03   4.7500000e+02  -9.8998870e+00
   1.3600000e+03   4.9000000e+02  -9.8983177e+00
   1.3600000e+03   5.0500000e+02  -9.8992042e+00
   1.3600000e+03   5.2000000e+02  -9.8993236e+00
   1.3600000e+03   5.3500000e+02  -9.8993517e+00
   1.3600000e+03   5.5000000e+02  -9.8988960e+00
   1.3600000e+03   5.6500000e+02  -9.8994134e+00
   1.3600000e+03   5.8000000e+02  -9.8994559e+00
   1.3600000e+03   5.9500000e+02  -9.8984360e+00
   1.3600000e+03   6.1000000e+02  -9.8986552e+00
   1.3600000e+03   6.2500000e+02  -9.8990301e+00
   1.3600000e+03   6.4000000e+02  -9.8998615e+00
   1.3600000e+03   6.5500000e+02  -9.8992192e+00
   1.3600000e+03   6.7000000e+02  -9.8984373e+00
   1.3600000e+03   6.8500000e+02  -9.8980986e+00
   1.3600000e+03   7.0000000e+02  -9.8984732e+00
   1.3600000e+03   7.1500000e+02  -9.8997287e+00
   1.3600000e+03   7.3000000e+02  -9.8980741e+00
   1.3600000e+03   7.4500000e+02  -9.8979772e+00
   1.3600000e+03   7.6000000e+02  -9.8985384e+00
   1.3600000e+03   7.7500000e+02  -9.8995481e+00
   1.3600000e+03   7.9000000e+02  -9.8990092e+00
   1.3600000e+03   8.0500000e+02  -9.8979779e+00
   1.3600000e+03   8.2000000e+02  -9.8989836e+00
   1.3600000e+03   8.3500000e+02  -9.8984713e+00
   1.3600000e+03   8.5000000e+02  -9.8999057e+00
   1.3600000e+03   8.6500000e+02  -9.8993815e+00
   1.3600000e+03   8.8000000e+02  -9.8991739e+00
   1.3600000e+03   8.9500000e+02  -9.8987632e+00
   1.3600000e+03   9.1000000e+02  -9.8987981e+00
   1.3600000e+03   9.2500000e+02  -9.8991080e+00
   1.3600000e+03   9.4000000e+02  -9.8998387e+00
   1.3600000e+03   9.5500000e+02  -9.8995264e+00
   1.3600000e+03   9.7000000e+02  -9.8998465e+00
   1.3600000e+03   9.8500000e+02  -9.8990490e+00
   1.3600000e+03   1.0000000e+03  -9.8985887e+00
   1.3600000e+03   1.0150000e+03  -9.8981318e+00
   1.3600000e+03   1.0300000e+03  -9.8992540e+00
   1.3600000e+03   1.0450000e+03  -9.8983533e+00
   1.3600000e+03   1.0600000e+03  -9.8983910e+00
   1.3600000e+03   1.0750000e+03  -9.8984076e+00
   1.3600000e+03   1.0900000e+03  -9.8985839e+00
   1.3750000e+03   1.0000000e+02  -9.8970227e+00
   1.3750000e+03   1.1500000e+02  -9.8969365e+00
   1.3750000e+03   1.3000000e+02  -9.8976065e+00
   1.3750000e+03   1.4500000e+02  -9.8978878e+00
   1.3750000e+03   1.6000000e+02  -9.8968542e+00
   1.3750000e+03   1.7500000e+02  -9.8967206e+00
   1.3750000e+03   1.9000000e+02  -9.8976086e+00
   1.3750000e+03   2.0500000e+02  -9.8975012e+00
   1.3750000e+03   2.2000000e+02  -9.8983872e+00
   1.3750000e+03   2.3500000e+02  -9.8980601e+00
   1.3750000e+03   2.5000000e+02  -9.8968167e+00
   1.3750000e+03   2.6500000e+02  -9.8985564e+00
   1.3750000e+03   2.8000000e+02  -9.8981787e+00
   1.3750000e+03   2.9500000e+02  -9.8982629e+00
   1.3750000e+03   3.1000000e+02  -9.8977735e+00
   1.3750000e+03   3.2500000e+02  -9.8973408e+00
   1.3750000e+03   3.4000000e+02  -9.8980379e+00
   1.3750000e+03   3.5500000e+02  -9.8985850e+00
   1.3750000e+03   3.7000000e+02  -9.8974840e+00
   1.3750000e+03   3.8500000e+02  -9.8977118e+00
   1.3750000e+03   4.0000000e+02  -9.8969961e+00
   1.3750000e+03   4.1500000e+02  -9.8973319e+00
   1.3750000e+03   4.3000000e+02  -9.8984957e+00
   1.3750000e+03   4.4500000e+02  -9.8983214e+00
   1.3750000e+03   4.6000000e+02  -9.8972866e+00
   1.3750000e+03   4.7500000e+02  -9.8967544e+00
   1.3750000e+03   4.9000000e+02  -9.8986663e+00
   1.3750000e+03   5.0500000e+02  -9.8974684e+00
   1.3750000e+03   5.2000000e+02  -9.8982391e+00
   1.3750000e+03   5.3500000e+02  -9.8974224e+00
   1.3750000e+03   5.5000000e+02  -9.8974713e+00
   1.3750000e+03   5.6500000e+02  -9.8971683e+00
   1.3750000e+03   5.8000000e+02  -9.8970765e+00
   1.3750000e+03   5.9500000e+02  -9.8978233e+00
   1.3750000e+03   6.1000000e+02  -9.8974630e+00
   1.3750000e+03   6.2500000e+02  -9.8982332e+00
   1.3750000e+03   6.4000000e+02  -9.8980506e+00
   1.3750000e+03   6.5500000e+02  -9.8983872e+00
   1.3750000e+03   6.7000000e+02  -9.8971569e+00
   1.3750000e+03   6.8500000e+02  -9.8979605e+00
   1.3750000e+03   7.0000000e+02  -9.8971905e+00
   1.3750000e+03   7.1500000e+02  -9.8981151e+00
   1.3750000e+03   7.3000000e+02  -9.8978755e+00
   1.3750000e+03   7.4500000e+02  -9.8970627e+00
   1.3750000e+03   7.6000000e+02  -9.8972533e+00
   1.3750000e+03   7.7500000e+02  -9.8977952e+00
   1.3750000e+03   7.9000000e+02  -9.8980772e+00
   1.3750000e+03   8.0500000e+02  -9.8978548e+00
   1.3750000e+03   8.2000000e+02  -9.8976236e+00
   1.3750000e+03   8.3500000e+02  -9.8978331e+00
   1.3750000e+03   8.5000000e+02  -9.8984109e+00
   1.3750000e+03   8.6500000e+02  -9.8982636e+00
   1.3750000e+03   8.8000000e+02  -9.8969436e+00
   1.3750000e+03   8.9500000e+02  -9.8980853e+00
   1.3750000e+03   9.1000000e+02  -9.8978948e+00
   1.3750000e+03   9.2500000e+02  -9.8981511e+00
   1.3750000e+03   9.4000000e+02  -9.8972269e+00
   1.3750000e+03   9.5500000e+02  -9.8974654e+00
   1.3750000e+03   9.7000000e+02  -9.8975498e+00
   1.3750000e+03   9.8500000e+02  -9.8984488e+00
   1.3750000e+03   1.0000000e+03  -9.8977506e+00
   1.3750000e+03   1.0150000e+03  -9.8972635e+00
   1.3750000e+03   1.0300000e+03  -9.8974606e+00
   1.3750000e+03   1.0450000e+03  -9.8973804e+00
   1.3750000e+03   1.0600000e+03  -9.8987061e+00
   1.3750000e+03   1.0750000e+03  -9.8970464e+00
   1.3750000e+03   1.0900000e+03  -9.8980119e+00
   1.3900000e+03   1.0000000e+02  -9.8964499e+00
   1.3900000e+03   1.1500000e+02  -9.8970003e+00
   1.3900000e+03   1.3000000e+02  -9.8970374e+00
   1.3900000e+03   1.4500000e+02  -9.8960451e+00
   1.3900000e+03   1.6000000e+02  -9.8969621e+00
   1.3900000e+03   1.7500000e+02  -9.8972669e+00
   1.3900000e+03   1.9000000e+02  -9.8964896e+00
   1.3900000e+03   2.0500000e+02  -9.8961078e+00
   1.3900000e+03   2.2000000e+02  -9.8967849e+00
   1.3900000e+03   2.3500000e+02  -9.8961990e+00
   1.3900000e+03   2.5000000e+02  -9.8972882e+00
   1.3900000e+03   2.6500000e+02  -9.8957808e+00
   1.3900000e+03   2.8000000e+02  -9.8966692e+00
   1.3900000e+03   2.9500000e+02  -9.8959731e+00
   1.3900000e+03   3.1000000e+02  -9.8957558e+00
   1.3900000e+03   3.2500000e+02  -9.8958131e+00
   1.3900000e+03   3.4000000e+02  -9.8968922e+00
   1.3900000e+03   3.5500000e+02  -9.8962852e+00
   1.3900000e+03   3.7000000e+02  -9.8958179e+00
   1.3900000e+03   3.8500000e+02  -9.8963637e+00
   1.3900000e+03   4.0000000e+02  -9.8969439e+00
   1.3900000e+03   4.1500000e+02  -9.8973485e+00
   1.3900000e+03   4.3000000e+02  -9.8972925e+00
   1.3900000e+03   4.4500000e+02  -9.8959119e+00
   1.3900000e+03   4.6000000e+02  -9.8974441e+00
   1.3900000e+03   4.7500000e+02  -9.8968345e+00
   1.3900000e+03   4.9000000e+02  -9.8963605e+00
   1.3900000e+03   5.0500000e+02  -9.8963906e+00
   1.3900000e+03   5.2000000e+02  -9.8970600e+00
   1.3900000e+03   5.3500000e+02  -9.8957450e+00
   1.3900000e+03   5.5000000e+02  -9.8970586e+00
   1.3900000e+03   5.6500000e+02  -9.8970786e+00
   1.3900000e+03   5.8000000e+02  -9.8973285e+00
   1.3900000e+03   5.9500000e+02  -9.8961548e+00
   1.3900000e+03   6.1000000e+02  -9.8958152e+00
   1.3900000e+03   6.2500000e+02  -9.8972469e+00
   1.3900000e+03   6.4000000e+02  -9.8975027e+00
   1.3900000e+03   6.5500000e+02  -9.8958464e+00
   1.3900000e+03   6.7000000e+02  -9.8972058e+00
   1.3900000e+03   6.8500000e+02  -9.8969155e+00
   1.3900000e+03   7.0000000e+02  -9.8967316e+00
   1.3900000e+03   7.1500000e+02  -9.8966920e+00
   1.3900000e+03   7.3000000e+02  -9.8972842e+00
   1.3900000e+03   7.4500000e+02  -9.8958981e+00
   1.3900000e+03   7.6000000e+02  -9.8958564e+00
   1.3900000e+03   7.7500000e+02  -9.8963487e+00
   1.3900000e+03   7.9000000e+02  -9.8960007e+00
   1.3900000e+03   8.0500000e+02  -9.8966765e+00
   1.3900000e+03   8.2000000e+02  -9.8968629e+00
   1.3900000e+03   8.3500000e+02  -9.8962750e+00
   1.3900000e+03   8.5000000e+02  -9.8960200e+00
   1.3900000e+03   8.6500000e+02  -9.8964366e+00
   1.3900000e+03   8.8000000e+02  -9.8961334e+00
   1.3900000e+03   8.9500000e+02  -9.8969581e+00
   1.3900000e+03   9.1000000e+02  -9.8958849e+00
   1.3900000e+03   9.2500000e+02  -9.8970864e+00
   1.3900000e+03   9.4000000e+02  -9.8973202e+00
   1.3900000e+03   9.5500000e+02  -9.8962383e+00
   1.3900000e+03   9.7000000e+02  -9.8958454e+00
   1.3900000e+03   9.8500000e+02  -9.8966966e+00
   1.3900000e+03   1.0000000e+03  -9.8961792e+00
   1.3900000e+03   1.0150000e+03  -9.8967540e+00
   1.3900000e+03   1.0300000e+03  -9.8972106e+00
   1.3900000e+03   1.0450000e+03  -9.8969465e+00
   1.3900000e+03   1.0600000e+03  -9.8972128e+00
   1.3900000e+03   1.0750000e+03  -9.8957767e+00
   1.3900000e+03   1.0900000e+03  -9.8969156e+00
   1.4050000e+03   1.0000000e+02  -9.8951738e+00
   1.4050000e+03   1.1500000e+02  -9.8961846e+00
   1.4050000e+03   1.3000000e+02  -9.8949029e+00
   1.4050000e+03   1.4500000e+02  -9.8948115e+00
   1.4050000e+03   1.6000000e+02  -9.8944528e+00
   1.4050000e+03   1.7500000e+02  -9.8949021e+00
   1.4050000e+03   1.9000000e+02  -9.8946264e+00
   1.4050000e+03   2.0500000e+02  -9.8946281e+00
   1.4050000e+03   2.2000000e+02  -9.8958029e+00
   1.4050000e+03   2.3500000e+02  -9.8959129e+00
   1.4050000e+03   2.5000000e+02  -9.8951922e+00
   1.4050000e+03   2.6500000e+02  -9.8944722e+00
   1.4050000e+03   2.8000000e+02  -9.8961992e+00
   1.4050000e+03   2.9500000e+02  -9.8944151e+00
   1.4050000e+03   3.1000000e+02  -9.8954651e+00
   1.4050000e+03   3.2500000e+02  -9.8962249e+00
   1.4050000e+03   3.4000000e+02  -9.8945762e+00
   1.4050000e+03   3.5500000e+02  -9.8945036e+00
   1.4050000e+03   3.7000000e+02  -9.8946220e+00
   1.4050000e+03   3.8500000e+02  -9.8955755e+00
   1.4050000e+03   4.0000000e+02  -9.8951250e+00
   1.4050000e+03   4.1500000e+02  -9.8947138e+00
   1.4050000e+03   4.3000000e+02  -9.8962228e+00
   1.4050000e+03   4.4500000e+02  -9.8944248e+00
   1.4050000e+03   4.6000000e+02  -9.8949100e+00
   1.4050000e+03   4.7500000e+02  -9.8949890e+00
   1.4050000e+03   4.9000000e+02  -9.8958543e+00
   1.4050000e+03   5.0500000e+02  -9.8959073e+00
   1.4050000e+03   5.2000000e+02  -9.8956409e+00
   1.4050000e+03   5.3500000e+02  -9.8960233e+00
   1.4050000e+03   5.5000000e+02  -9.8949534e+00
   1.4050000e+03   5.6500000e+02  -9.8959025e+00
   1.4050000e+03   5.8000000e+02  -9.8954535e+00
   1.4050000e+03   5.9500000e+02  -9.8959881e+00
   1.4050000e+03   6.1000000e+02  -9.8949121e+00
   1.4050000e+03   6.2500000e+02  -9.8959464e+00
   1.4050000e+03   6.4000000e+02  -9.8953151e+00
   1.4050000e+03   6.5500000e+02  -9.8948920e+00
   1.4050000e+03   6.7000000e+02  -9.8947679e+00
   1.4050000e+03   6.8500000e+02  -9.8953882e+00
   1.4050000e+03   7.0000000e+02  -9.8962700e+00
   1.4050000e+03   7.1500000e+02  -9.8943517e+00
   1.4050000e+03   7.3000000e+02  -9.8954440e+00
   1.4050000e+03   7.4500000e+02  -9.8957110e+00
   1.4050000e+03   7.6000000e+02  -9.8961198e+00
   1.4050000e+03   7.7500000e+02  -9.8962973e+00
   1.4050000e+03   7.9000000e+02  -9.8945242e+00
   1.4050000e+03   8.0500000e+02  -9.8960280e+00
   1.4050000e+03   8.2000000e+02  -9.8959976e+00
   1.4050000e+03   8.3500000e+02  -9.8947196e+00
   1.4050000e+03   8.5000000e+02  -9.8955209e+00
   1.4050000e+03   8.6500000e+02  -9.8946255e+00
   1.4050000e+03   8.8000000e+02  -9.8952484e+00
   1.4050000e+03   8.9500000e+02  -9.8954071e+00
   1.4050000e+03   9.1000000e+02  -9.8954496e+00
   1.4050000e+03   9.2500000e+02  -9.8952845e+00
   1.4050000e+03   9.4000000e+02  -9.8948788e+00
   1.4050000e+03   9.5500000e+02  -9.8951705e+00
   1.4050000e+03   9.7000000e+02  -9.8949026e+00
   1.4050000e+03   9.8500000e+02  -9.8946194e+00
   1.4050000e+03   1.0000000e+03  -9.8943729e+00
   1.4050000e+03   1.0150000e+03  -9.8951708e+00
   1.4050000e+03   1.0300000e+03  -9.8943801e+00
   1.4050000e+03   1.0450000e+03  -9.8958820e+00
   1.4050000e+03   1.0600000e+03  -9.8945947e+00
   1.4050000e+03   1.0750000e+03  -9.8960438e+00
   1.4050000e+03   1.0900000e+03  -9.8946694e+00
   1.4200000e+03   1.0000000e+02  -9.8938466e+00
   1.4200000e+03   1.1500000e+02  -9.8938184e+00
   1.4200000e+03   1.3000000e+02  -9.8939130e+00
   1.4200000e+03   1.4500000e+02  -9.8938706e+00
   1.4200000e+03   1.6000000e+02  -9.8945736e+00
   1.4200000e+03   1.7500000e+02  -9.8931177e+00
   1.4200000e+03   1.9000000e+02  -9.8935433e+00
   1.4200000e+03   2.0500000e+02  -9.8946714e+00
   1.4200000e+03   2.2000000e+02  -9.8945779e+00
   1.4200000e+03   2.3500000e+02  -9.8941460e+00
   1.4200000e+03   2.5000000e+02  -9.8932626e+00
   1.4200000e+03   2.6500000e+02  -9.8940147e+00
   1.4200000e+03   2.8000000e+02  -9.8948747e+00
   1.4200000e+03   2.9500000e+02  -9.8932538e+00
   1.4200000e+03   3.1000000e+02  -9.8932091e+00
   1.4200000e+03   3.2500000e+02  -9.8937112e+00
   1.4200000e+03   3.4000000e+02  -9.8935804e+00
   1.4200000e+03   3.5500000e+02  -9.8939331e+00
   1.4200000e+03   3.7000000e+02  -9.8946619e+00
   1.4200000e+03   3.8500000e+02  -9.8943042e+00
   1.4200000e+03   4.0000000e+02  -9.8937953e+00
   1.4200000e+03   4.1500000e+02  -9.8950758e+00
   1.4200000e+03   4.3000000e+02  -9.8938010e+00
   1.4200000e+03   4.4500000e+02  -9.8934094e+00
   1.4200000e+03   4.6000000e+02  -9.8932623e+00
   1.4200000e+03   4.7500000e+02  -9.8944395e+00
   1.4200000e+03   4.9000000e+02  -9.8935145e+00
   1.4200000e+03   5.0500000e+02  -9.8931092e+00
   1.4200000e+03   5.2000000e+02  -9.8938633e+00
   1.4200000e+03   5.3500000e+02  -9.8938147e+00
   1.4200000e+03   5.5000000e+02  -9.8935371e+00
   1.4200000e+03   5.6500000e+02  -9.8933581e+00
   1.4200000e+03   5.8000000e+02  -9.8940160e+00
   1.4200000e+03   5.9500000e+02  -9.8939620e+00
   1.4200000e+03   6.1000000e+02  -9.8938601e+00
   1.4200000e+03   6.2500000e+02  -9.8934229e+00
   1.4200000e+03   6.4000000e+02  -9.8939897e+00
   1.4200000e+03   6.5500000e+02  -9.8950598e+00
   1.4200000e+03   6.7000000e+02  -9.8941094e+00
   1.4200000e+03   6.8500000e+02  -9.8937994e+00
   1.4200000e+03   7.0000000e+02  -9.8933531e+00
   1.4200000e+03   7.1500000e+02  -9.8935988e+00
   1.4200000e+03   7.3000000e+02  -9.8946474e+00
   1.4200000e+03   7.4500000e+02  -9.8942416e+00
   1.4200000e+03   7.6000000e+02  -9.8944045e+00
   1.4200000e+03   7.7500000e+02  -9.8950472e+00
   1.4200000e+03   7.9000000e+02  -9.8933974e+00
   1.4200000e+03   8.0500000e+02  -9.8933625e+00
   1.4200000e+03   8.2000000e+02  -9.8933442e+00
   1.4200000e+03   8.3500000e+02  -9.8936653e+00
   1.4200000e+03   8.5000000e+02  -9.8944927e+00
   1.4200000e+03   8.6500000e+02  -9.8939752e+00
   1.4200000e+03   8.8000000e+02  -9.8950321e+00
   1.4200000e+03   8.9500000e+02  -9.8950679e+00
   1.4200000e+03   9.1000000e+02  -9.8943552e+00
   1.4200000e+03   9.2500000e+02  -9.8932809e+00
   1.4200000e+03   9.4000000e+02  -9.8941767e+00
   1.4200000e+03   9.5500000e+02  -9.8942188e+00
   1.4200000e+03   9.7000000e+02  -9.8938608e+00
   1.4200000e+03   9.8500000e+02  -9.8935812e+00
   1.4200000e+03   1.0000000e+03  -9.8947844e+00
   1.4200000e+03   1.0150000e+03  -9.8944694e+00
   1.4200000e+03   1.0300000e+03  -9.8945389e+00
   1.4200000e+03   1.0450000e+03  -9.8932097e+00
   1.4200000e+03   1.0600000e+03  -9.8948811e+00
   1.4200000e+03   1.0750000e+03  -9.8946398e+00
   1.4200000e+03   1.0900000e+03  -9.8936106e+00
   1.4350000e+03   1.0000000e+02  -9.8934834e+00
   1.4350000e+03   1.1500000e+02  -9.8928582e+00
   1.4350000e+03   1.3000000e+02  -9.8934678e+00
   1.4350000e+03   1.4500000e+02  -9.8934832e+00
   1.4350000e+03   1.6000000e+02  -9.8928581e+00
   1.4350000e+03   1.7500000e+02  -9.8932448e+00
   1.4350000e+03   1.9000000e+02  -9.8919725e+00
   1.4350000e+03   2.0500000e+02  -9.8920683e+00
   1.4350000e+03   2.2000000e+02  -9.8934460e+00
   1.4350000e+03   2.3500000e+02  -9.8928843e+00
   1.4350000e+03   2.5000000e+02  -9.8933781e+00
   1.4350000e+03   2.6500000e+02  -9.8937210e+00
   1.4350000e+03   2.8000000e+02  -9.8924130e+00
   1.4350000e+03   2.9500000e+02  -9.8932012e+00
   1.4350000e+03   3.1000000e+02  -9.8919333e+00
   1.4350000e+03   3.2500000e+02  -9.8932369e+00
   1.4350000e+03   3.4000000e+02  -9.8929162e+00
   1.4350000e+03   3.5500000e+02  -9.8928917e+00
   1.4350000e+03   3.7000000e+02  -9.8922778e+00
   1.4350000e+03   3.8500000e+02  -9.8921845e+00
   1.4350000e+03   4.0000000e+02  -9.8934913e+00
   1.4350000e+03   4.1500000e+02  -9.8926711e+00
   1.4350000e+03   4.3000000e+02  -9.8934297e+00
   1.4350000e+03   4.4500000e+02  -9.8921764e+00
   1.4350000e+03   4.6000000e+02  -9.8938273e+00
   1.4350000e+03   4.7500000e+02  -9.8925126e+00
   1.4350000e+03   4.9000000e+02  -9.8919690e+00
   1.4350000e+03   5.0500000e+02  -9.8919835e+00
   1.4350000e+03   5.2000000e+02  -9.8934299e+00
   1.4350000e+03   5.3500000e+02  -9.8928673e+00
   1.4350000e+03   5.5000000e+02  -9.8921767e+00
   1.4350000e+03   5.6500000e+02  -9.8932541e+00
   1.4350000e+03   5.8000000e+02  -9.8925066e+00
   1.4350000e+03   5.9500000e+02  -9.8919525e+00
   1.4350000e+03   6.1000000e+02  -9.8928788e+00
   1.4350000e+03   6.2500000e+02  -9.8920769e+00
   1.4350000e+03   6.4000000e+02  -9.8928797e+00
   1.4350000e+03   6.5500000e+02  -9.8928213e+00
   1.4350000e+03   6.7000000e+02  -9.8925716e+00
   1.4350000e+03   6.8500000e+02  -9.8936238e+00
   1.4350000e+03   7.0000000e+02  -9.8929513e+00
   1.4350000e+03   7.1500000e+02  -9.8921093e+00
   1.4350000e+03   7.3000000e+02  -9.8935597e+00
   1.4350000e+03   7.4500000e+02  -9.8932901e+00
   1.4350000e+03   7.6000000e+02  -9.8922607e+00
   1.4350000e+03   7.7500000e+02  -9.8938746e+00
   1.4350000e+03   7.9000000e+02  -9.8924399e+00
   1.4350000e+03   8.0500000e+02  -9.8920979e+00
   1.4350000e+03   8.2000000e+02  -9.8938471e+00
   1.4350000e+03   8.3500000e+02  -9.8926822e+00
   1.4350000e+03   8.5000000e+02  -9.8935169e+00
   1.4350000e+03   8.6500000e+02  -9.8922508e+00
   1.4350000e+03   8.8000000e+02  -9.8934041e+00
   1.4350000e+03   8.9500000e+02  -9.8926997e+00
   1.4350000e+03   9.1000000e+02  -9.8921414e+00
   1.4350000e+03   9.2500000e+02  -9.8933936e+00
   1.4350000e+03   9.4000000e+02  -9.8934169e+00
   1.4350000e+03   9.5500000e+02  -9.8931065e+00
   1.4350000e+03   9.7000000e+02  -9.8926454e+00
   1.4350000e+03   9.8500000e+02  -9.8922113e+00
   1.4350000e+03   1.0000000e+03  -9.8938436e+00
   1.4350000e+03   1.0150000e+03  -9.8931197e+00
   1.4350000e+03   1.0300000e+03  -9.8927121e+00
   1.4350000e+03   1.0450000e+03  -9.8934078e+00
   1.4350000e+03   1.0600000e+03  -9.8933053e+00
   1.4350000e+03   1.0750000e+03  -9.8937314e+00
   1.4350000e+03   1.0900000e+03  -9.8936825e+00
   1.4500000e+03   1.0000000e+02  -9.8924018e+00
   1.4500000e+03   1.1500000e+02  -9.8920376e+00
   1.4500000e+03   1.3000000e+02  -9.8914327e+00
   1.4500000e+03   1.4500000e+02  -9.8918230e+00
   1.4500000e+03   1.6000000e+02  -9.8916411e+00
   1.4500000e+03   1.7500000e+02  -9.8915223e+00
   1.4500000e+03   1.9000000e+02  -9.8918186e+00
   1.4500000e+03   2.0500000e+02  -9.8925003e+00
   1.4500000e+03   2.2000000e+02  -9.8919825e+00
   1.4500000e+03   2.3500000e+02  -9.8923418e+00
   1.4500000e+03   2.5000000e+02  -9.8921311e+00
   1.4500000e+03   2.6500000e+02  -9.8918164e+00
   1.4500000e+03   2.8000000e+02  -9.8923707e+00
   1.4500000e+03   2.9500000e+02  -9.8919537e+00
   1.4500000e+03   3.1000000e+02  -9.8918965e+00
   1.4500000e+03   3.2500000e+02  -9.8923721e+00
   1.4500000e+03   3.4000000e+02  -9.8916136e+00
   1.4500000e+03   3.5500000e+02  -9.8916958e+00
   1.4500000e+03   3.7000000e+02  -9.8923528e+00
   1.4500000e+03   3.8500000e+02  -9.8913551e+00
   1.4500000e+03   4.0000000e+02  -9.8917135e+00
   1.4500000e+03   4.1500000e+02  -9.8921794e+00
   1.4500000e+03   4.3000000e+02  -9.8923046e+00
   1.4500000e+03   4.4500000e+02  -9.8915976e+00
   1.4500000e+03   4.6000000e+02  -9.8914953e+00
   1.4500000e+03   4.7500000e+02  -9.8912319e+00
   1.4500000e+03   4.9000000e+02  -9.8922290e+00
   1.4500000e+03   5.0500000e+02  -9.8917178e+00
   1.4500000e+03   5.2000000e+02  -9.8908846e+00
   1.4500000e+03   5.3500000e+02  -9.8914250e+00
   1.4500000e+03   5.5000000e+02  -9.8914364e+00
   1.4500000e+03   5.6500000e+02  -9.8913150e+00
   1.4500000e+03   5.8000000e+02  -9.8917222e+00
   1.4500000e+03   5.9500000e+02  -9.8914107e+00
   1.4500000e+03   6.1000000e+02  -9.8920208e+00
   1.4500000e+03   6.2500000e+02  -9.8920023e+00
   1.4500000e+03   6.4000000e+02  -9.8914726e+00
   1.4500000e+03   6.5500000e+02  -9.8911246e+00
   1.4500000e+03   6.7000000e+02  -9.8915112e+00
   1.4500000e+03   6.8500000e+02  -9.8906945e+00
   1.4500000e+03   7.0000000e+02  -9.8911938e+00
   1.4500000e+03   7.1500000e+02  -9.8921136e+00
   1.4500000e+03   7.3000000e+02  -9.8908918e+00
   1.4500000e+03   7.4500000e+02  -9.8912082e+00
   1.4500000e+03   7.6000000e+02  -9.8924591e+00
   1.4500000e+03   7.7500000e+02  -9.8922076e+00
   1.4500000e+03   7.9000000e+02  -9.8912334e+00
   1.4500000e+03   8.0500000e+02  -9.8914885e+00
   1.4500000e+03   8.2000000e+02  -9.8924716e+00
   1.4500000e+03   8.3500000e+02  -9.8910163e+00
   1.4500000e+03   8.5000000e+02  -9.8918805e+00
   1.4500000e+03   8.6500000e+02  -9.8914723e+00
   1.4500000e+03   8.8000000e+02  -9.8918761e+00
   1.4500000e+03   8.9500000e+02  -9.8916293e+00
   1.4500000e+03   9.1000000e+02  -9.8907090e+00
   1.4500000e+03   9.2500000e+02  -9.8918563e+00
   1.4500000e+03   9.4000000e+02  -9.8910184e+00
   1.4500000e+03   9.5500000e+02  -9.8908413e+00
   1.4500000e+03   9.7000000e+02  -9.8922328e+00
   1.4500000e+03   9.8500000e+02  -9.8925030e+00
   1.4500000e+03   1.0000000e+03  -9.8916165e+00
   1.4500000e+03   1.0150000e+03  -9.8918732e+00
   1.4500000e+03   1.0300000e+03  -9.8913074e+00
   1.4500000e+03   1.0450000e+03  -9.8908576e+00
   1.4500000e+03   1.0600000e+03  -9.8919682e+00
   1.4500000e+03   1.0750000e+03  -9.8917079e+00
   1.4500000e+03   1.0900000e+03  -9.8912833e+00
   1.4650000e+03   1.0000000e+02  -9.8909301e+00
   1.4650000e+03   1.1500000e+02  -9.8903856e+00
   1.4650000e+03   1.3000000e+02  -9.8895341e+00
   1.4650000e+03   1.4500000e+02  -9.8910609e+00
   1.4650000e+03   1.6000000e+02  -9.8906169e+00
   1.4650000e+03   1.7500000e+02  -9.8911408e+00
   1.4650000e+03   1.9000000e+02  -9.8913767e+00
   1.4650000e+03   2.0500000e+02  -9.8906623e+00
   1.4650000e+03   2.2000000e+02  -9.8910947e+00
   1.4650000e+03   2.3500000e+02  -9.8905653e+00
   1.4650000e+03   2.5000000e+02  -9.8899997e+00
   1.4650000e+03   2.6500000e+02  -9.8911826e+00
   1.4650000e+03   2.8000000e+02  -9.8898276e+00
   1.4650000e+03   2.9500000e+02  -9.8900600e+00
   1.4650000e+03   3.1000000e+02  -9.8895761e+00
   1.4650000e+03   3.2500000e+02  -9.8910747e+00
   1.4650000e+03   3.4000000e+02  -9.8896798e+00
   1.4650000e+03   3.5500000e+02  -9.8899944e+00
   1.4650000e+03   3.7000000e+02  -9.8907170e+00
   1.4650000e+03   3.8500000e+02  -9.8908757e+00
   1.4650000e+03   4.0000000e+02  -9.8900826e+00
   1.4650000e+03   4.1500000e+02  -9.8914155e+00
   1.4650000e+03   4.3000000e+02  -9.8895053e+00
   1.4650000e+03   4.4500000e+02  -9.8900690e+00
   1.4650000e+03   4.6000000e+02  -9.8907028e+00
   1.4650000e+03   4.7500000e+02  -9.8901489e+00
   1.4650000e+03   4.9000000e+02  -9.8912848e+00
   1.4650000e+03   5.0500000e+02  -9.8895277e+00
   1.4650000e+03   5.2000000e+02  -9.8911020e+00
   1.4650000e+03   5.3500000e+02  -9.8906834e+00
   1.4650000e+03   5.5000000e+02  -9.8897799e+00
   1.4650000e+03   5.6500000e+02  -9.8914842e+00
   1.4650000e+03   5.8000000e+02  -9.8906411e+00
   1.4650000e+03   5.9500000e+02  -9.8897533e+00
   1.4650000e+03   6.1000000e+02  -9.8908663e+00
   1.4650000e+03   6.2500000e+02  -9.8906917e+00
   1.4650000e+03   6.4000000e+02  -9.8912810e+00
   1.4650000e+03   6.5500000e+02  -9.8906588e+00
   1.4650000e+03   6.7000000e+02  -9.8899450e+00
   1.4650000e+03   6.8500000e+02  -9.8913473e+00
   1.4650000e+03   7.0000000e+02  -9.8900323e+00
   1.4650000e+03   7.1500000e+02  -9.8904759e+00
   1.4650000e+03   7.3000000e+02  -9.8902890e+00
   1.4650000e+03   7.4500000e+02  -9.8898785e+00
   1.4650000e+03   7.6000000e+02  -9.8914106e+00
   1.4650000e+03   7.7500000e+02  -9.8912984e+00
   1.4650000e+03   7.9000000e+02  -9.8896156e+00
   1.4650000e+03   8.0500000e+02  -9.8896797e+00
   1.4650000e+03   8.2000000e+02  -9.8903720e+00
   1.4650000e+03   8.3500000e+02  -9.8895659e+00
   1.4650000e+03   8.5000000e+02  -9.8895790e+00
   1.4650000e+03   8.6500000e+02  -9.8904061e+00
   1.4650000e+03   8.8000000e+02  -9.8910297e+00
   1.4650000e+03   8.9500000e+02  -9.8904572e+00
   1.4650000e+03   9.1000000e+02  -9.8899113e+00
   1.4650000e+03   9.2500000e+02  -9.8910340e+00
   1.4650000e+03   9.4000000e+02  -9.8901387e+00
   1.4650000e+03   9.5500000e+02  -9.8895324e+00
   1.4650000e+03   9.7000000e+02  -9.8895164e+00
   1.4650000e+03   9.8500000e+02  -9.8898176e+00
   1.4650000e+03   1.0000000e+03  -9.8910815e+00
   1.4650000e+03   1.0150000e+03  -9.8912358e+00
   1.4650000e+03   1.0300000e+03  -9.8899817e+00
   1.4650000e+03   1.0450000e+03  -9.8911043e+00
   1.4650000e+03   1.0600000e+03  -9.8914351e+00
   1.4650000e+03   1.0750000e+03  -9.8899458e+00
   1.4650000e+03   1.0900000e+03  -9.8898308e+00
   1.4800000e+03   1.0000000e+02  -9.8899910e+00
   1.4800000e+03   1.1500000e+02  -9.8895150e+00
   1.4800000e+03   1.3000000e+02  -9.8897737e+00
   1.4800000e+03   1.4500000e+02  -9.8885673e+00
   1.4800000e+03   1.6000000e+02  -9.8891908e+00
   1.4800000e+03   1.7500000e+02  -9.8900305e+00
   1.4800000e+03   1.9000000e+02  -9.8887472e+00
   1.4800000e+03   2.0500000e+02  -9.8902045e+00
   1.4800000e+03   2.2000000e+02  -9.8887776e+00
   1.4800000e+03   2.3500000e+02  -9.8885663e+00
   1.4800000e+03   2.5000000e+02  -9.8891899e+00
   1.4800000e+03   2.6500000e+02  -9.8900071e+00
   1.4800000e+03   2.8000000e+02  -9.8902237e+00
   1.4800000e+03   2.9500000e+02  -9.8886449e+00
   1.4800000e+03   3.1000000e+02  -9.8893591e+00
   1.4800000e+03   3.2500000e+02  -9.8886875e+00
   1.4800000e+03   3.4000000e+02  -9.8893846e+00
   1.4800000e+03   3.5500000e+02  -9.8883088e+00
   1.4800000e+03   3.7000000e+02  -9.8887012e+00
   1.4800000e+03   3.8500000e+02  -9.8894712e+00
   1.4800000e+03   4.0000000e+02  -9.8891892e+00
   1.4800000e+03   4.1500000e+02  -9.8891760e+00
   1.4800000e+03   4.3000000e+02  -9.8902256e+00
   1.4800000e+03   4.4500000e+02  -9.8897397e+00
   1.4800000e+03   4.6000000e+02  -9.8892816e+00
   1.4800000e+03   4.7500000e+02  -9.8889530e+00
   1.4800000e+03   4.9000000e+02  -9.8898757e+00
   1.4800000e+03   5.0500000e+02  -9.8889588e+00
   1.4800000e+03   5.2000000e+02  -9.8898879e+00
   1.4800000e+03   5.3500000e+02  -9.8893530e+00
   1.4800000e+03   5.5000000e+02  -9.8896400e+00
   1.4800000e+03   5.6500000e+02  -9.8901153e+00
   1.4800000e+03   5.8000000e+02  -9.8894397e+00
   1.4800000e+03   5.9500000e+02  -9.8886468e+00
   1.4800000e+03   6.1000000e+02  -9.8892879e+00
   1.4800000e+03   6.2500000e+02  -9.8890115e+00
   1.4800000e+03   6.4000000e+02  -9.8885170e+00
   1.4800000e+03   6.5500000e+02  -9.8895177e+00
   1.4800000e+03   6.7000000e+02  -9.8900886e+00
   1.4800000e+03   6.8500000e+02  -9.8886730e+00
   1.4800000e+03   7.0000000e+02  -9.8884662e+00
   1.4800000e+03   7.1500000e+02  -9.8899377e+00
   1.4800000e+03   7.3000000e+02  -9.8893828e+00
   1.4800000e+03   7.4500000e+02  -9.8893878e+00
   1.4800000e+03   7.6000000e+02  -9.8884159e+00
   1.4800000e+03   7.7500000e+02  -9.8885856e+00
   1.4800000e+03   7.9000000e+02  -9.8897922e+00
   1.4800000e+03   8.0500000e+02  -9.8896457e+00
   1.4800000e+03   8.2000000e+02  -9.8893544e+00
   1.4800000e+03   8.3500000e+02  -9.8900169e+00
   1.4800000e+03   8.5000000e+02  -9.8899956e+00
   1.4800000e+03   8.6500000e+02  -9.8885122e+00
   1.4800000e+03   8.8000000e+02  -9.8894798e+00
   1.4800000e+03   8.9500000e+02  -9.8888953e+00
   1.4800000e+03   9.1000000e+02  -9.8888425e+00
   1.4800000e+03   9.2500000e+02  -9.8894503e+00
   1.4800000e+03   9.4000000e+02  -9.8896216e+00
   1.4800000e+03   9.5500000e+02  -9.8893853e+00
   1.4800000e+03   9.7000000e+02  -9.8896145e+00
   1.4800000e+03   9.8500000e+02  -9.8887303e+00
   1.4800000e+03   1.0000000e+03  -9.8901597e+00
   1.4800000e+03   1.0150000e+03  -9.8894473e+00
   1.4800000e+03   1.0300000e+03  -9.8886537e+00
   1.4800000e+03   1.0450000e+03  -9.8888914e+00
   1.4800000e+03   1.0600000e+03  -9.8897987e+00
   1.4800000e+03   1.0750000e+03  -9.8892234e+00
   1.4800000e+03   1.0900000e+03  -9.8884661e+00
   1.4950000e+03   1.0000000e+02  -9.8878856e+00
   1.4950000e+03   1.1500000e+02  -9.8880519e+00
   1.4950000e+03   1.3000000e+02  -9.8878907e+00
   1.4950000e+03   1.4500000e+02  -9.8883629e+00
   1.4950000e+03   1.6000000e+02  -9.8872617e+00
   1.4950000e+03   1.7500000e+02  -9.8874959e+00
   1.4950000e+03   1.9000000e+02  -9.8871989e+00
   1.4950000e+03   2.0500000e+02  -9.8875001e+00
   1.4950000e+03   2.2000000e+02  -9.8880121e+00
   1.4950000e+03   2.3500000e+02  -9.8877987e+00
   1.4950000e+03   2.5000000e+02  -9.8871096e+00
   1.4950000e+03   2.6500000e+02  -9.8881876e+00
   1.4950000e+03   2.8000000e+02  -9.8878121e+00
   1.4950000e+03   2.9500000e+02  -9.8886323e+00
   1.4950000e+03   3.1000000e+02  -9.8890346e+00
   1.4950000e+03   3.2500000e+02  -9.8878597e+00
   1.4950000e+03   3.4000000e+02  -9.8890167e+00
   1.4950000e+03   3.5500000e+02  -9.8870947e+00
   1.4950000e+03   3.7000000e+02  -9.8877007e+00
   1.4950000e+03   3.8500000e+02  -9.8887143e+00
   1.4950000e+03   4.0000000e+02  -9.8872160e+00
   1.4950000e+03   4.1500000e+02  -9.8882974e+00
   1.4950000e+03   4.3000000e+02  -9.8874446e+00
   1.4950000e+03   4.4500000e+02  -9.8881363e+00
   1.4950000e+03   4.6000000e+02  -9.8876487e+00
   1.4950000e+03   4.7500000e+02  -9.8875400e+00
   1.4950000e+03   4.9000000e+02  -9.8888743e+00
   1.4950000e+03   5.0500000e+02  -9.8890575e+00
   1.4950000e+03   5.2000000e+02  -9.8885095e+00
   1.4950000e+03   5.3500000e+02  -9.8879172e+00
   1.4950000e+03   5.5000000e+02  -9.8875712e+00
   1.4950000e+03   5.6500000e+02  -9.8884305e+00
   1.4950000e+03   5.8000000e+02  -9.8883394e+00
   1.4950000e+03   5.9500000e+02  -9.8874264e+00
   1.4950000e+03   6.1000000e+02  -9.8871724e+00
   1.4950000e+03   6.2500000e+02  -9.8877872e+00
   1.4950000e+03   6.4000000e+02  -9.8886293e+00
   1.4950000e+03   6.5500000e+02  -9.8890510e+00
   1.4950000e+03   6.7000000e+02  -9.8880758e+00
   1.4950000e+03   6.8500000e+02  -9.8872248e+00
   1.4950000e+03   7.0000000e+02  -9.8872718e+00
   1.4950000e+03   7.1500000e+02  -9.8880860e+00
   1.4950000e+03   7.3000000e+02  -9.8882140e+00
   1.4950000e+03   7.4500000e+02  -9.8879749e+00
   1.4950000e+03   7.6000000e+02  -9.8884292e+00
   1.4950000e+03   7.7500000e+02  -9.8880243e+00
   1.4950000e+03   7.9000000e+02  -9.8886419e+00
   1.4950000e+03   8.0500000e+02  -9.8888592e+00
   1.4950000e+03   8.2000000e+02  -9.8886783e+00
   1.4950000e+03   8.3500000e+02  -9.8890329e+00
   1.4950000e+03   8.5000000e+02  -9.8873631e+00
   1.4950000e+03   8.6500000e+02  -9.8871482e+00
   1.4950000e+03   8.8000000e+02  -9.8890459e+00
   1.4950000e+03   8.9500000e+02  -9.8871785e+00
   1.4950000e+03   9.1000000e+02  -9.8874307e+00
   1.4950000e+03   9.2500000e+02  -9.8874134e+00
   1.4950000e+03   9.4000000e+02  -9.8873070e+00
   1.4950000e+03   9.5500000e+02  -9.8874678e+00
   1.4950000e+03   9.7000000e+02  -9.8887427e+00
   1.4950000e+03   9.8500000e+02  -9.8886968e+00
   1.4950000e+03   1.0000000e+03  -9.8885670e+00
   1.4950000e+03   1.0150000e+03  -9.8874723e+00
   1.4950000e+03   1.0300000e+03  -9.8881094e+00
   1.4950000e+03   1.0450000e+03  -9.8887622e+00
   1.4950000e+03   1.0600000e+03  -9.8886063e+00
   1.4950000e+03   1.0750000e+03  -9.8878355e+00
   1.4950000e+03   1.0900000e+03  -9.8875161e+00
   1.5100000e+03   1.0000000e+02  -9.8867793e+00
   1.5100000e+03   1.1500000e+02  -9.8868109e+00
   1.5100000e+03   1.3000000e+02  -9.8859663e+00
   1.5100000e+03   1.4500000e+02  -9.8877277e+00
   1.5100000e+03   1.6000000e+02  -9.8862967e+00
   1.5100000e+03   1.7500000e+02  -9.8862811e+00
   1.5100000e+03   1.9000000e+02  -9.8875426e+00
   1.5100000e+03   2.0500000e+02  -9.8877928e+00
   1.5100000e+03   2.2000000e+02  -9.8859704e+00
   1.5100000e+03   2.3500000e+02  -9.8877188e+00
   1.5100000e+03   2.5000000e+02  -9.8859165e+00
   1.5100000e+03   2.6500000e+02  -9.8872847e+00
   1.5100000e+03   2.8000000e+02  -9.8875695e+00
   1.5100000e+03   2.9500000e+02  -9.8863429e+00
   1.5100000e+03   3.1000000e+02  -9.8867982e+00
   1.5100000e+03   3.2500000e+02  -9.8874350e+00
   1.5100000e+03   3.4000000e+02  -9.8875316e+00
   1.5100000e+03   3.5500000e+02  -9.8865872e+00
   1.5100000e+03   3.7000000e+02  -9.8878294e+00
   1.5100000e+03   3.8500000e+02  -9.8876448e+00
   1.5100000e+03   4.0000000e+02  -9.8870571e+00
   1.5100000e+03   4.1500000e+02  -9.8877201e+00
   1.5100000e+03   4.3000000e+02  -9.8860144e+00
   1.5100000e+03   4.4500000e+02  -9.8862347e+00
   1.5100000e+03   4.6000000e+02  -9.8868603e+00
   1.5100000e+03   4.7500000e+02  -9.8863318e+00
   1.5100000e+03   4.9000000e+02  -9.8870228e+00
   1.5100000e+03   5.0500000e+02  -9.8862947e+00
   1.5100000e+03   5.2000000e+02  -9.8871977e+00
   1.5100000e+03   5.3500000e+02  -9.8861373e+00
   1.5100000e+03   5.5000000e+02  -9.8868683e+00
   1.5100000e+03   5.6500000e+02  -9.8875703e+00
   1.5100000e+03   5.8000000e+02  -9.8872300e+00
   1.5100000e+03   5.9500000e+02  -9.8866336e+00
   1.5100000e+03   6.1000000e+02  -9.8873458e+00
   1.5100000e+03   6.2500000e+02  -9.8862040e+00
   1.5100000e+03   6.4000000e+02  -9.8877688e+00
   1.5100000e+03   6.5500000e+02  -9.8877088e+00
   1.5100000e+03   6.7000000e+02  -9.8863968e+00
   1.5100000e+03   6.8500000e+02  -9.8859988e+00
   1.5100000e+03   7.0000000e+02  -9.8871196e+00
   1.5100000e+03   7.1500000e+02  -9.8859829e+00
   1.5100000e+03   7.3000000e+02  -9.8869221e+00
   1.5100000e+03   7.4500000e+02  -9.8862952e+00
   1.5100000e+03   7.6000000e+02  -9.8863284e+00
   1.5100000e+03   7.7500000e+02  -9.8877022e+00
   1.5100000e+03   7.9000000e+02  -9.8858958e+00
   1.5100000e+03   8.0500000e+02  -9.8871062e+00
   1.5100000e+03   8.2000000e+02  -9.8868339e+00
   1.5100000e+03   8.3500000e+02  -9.8865213e+00
   1.5100000e+03   8.5000000e+02  -9.8868874e+00
   1.5100000e+03   8.6500000e+02  -9.8869326e+00
   1.5100000e+03   8.8000000e+02  -9.8866778e+00
   1.5100000e+03   8.9500000e+02  -9.8867207e+00
   1.5100000e+03   9.1000000e+02  -9.8873875e+00
   1.5100000e+03   9.2500000e+02  -9.8874339e+00
   1.5100000e+03   9.4000000e+02  -9.8866691e+00
   1.5100000e+03   9.5500000e+02  -9.8870789e+00
   1.5100000e+03   9.7000000e+02  -9.8871289e+00
   1.5100000e+03   9.8500000e+02  -9.8869149e+00
   1.5100000e+03   1.0000000e+03  -9.8860124e+00
   1.5100000e+03   1.0150000e+03  -9.8865734e+00
   1.5100000e+03   1.0300000e+03  -9.8872540e+00
   1.5100000e+03   1.0450000e+03  -9.8872540e+00
   1.5100000e+03   1.0600000e+03  -9.8865283e+00
   1.5100000e+03   1.0750000e+03  -9.8878047e+00
   1.5100000e+03   1.0900000e+03  -9.8876184e+00
   1.5250000e+03   1.0000000e+02  -9.8848032e+00
   1.5250000e+03   1.1500000e+02  -9.8862035e+00
   1.5250000e+03   1.3000000e+02  -9.8852347e+00
   1.5250000e+03   1.4500000e+02  -9.8856200e+00
   1.5250000e+03   1.6000000e+02  -9.8865049e+00
   1.5250000e+03   1.7500000e+02  -9.8856945e+00
   1.5250000e+03   1.9000000e+02  -9.8847797e+00
   1.5250000e+03   2.0500000e+02  -9.8853838e+00
   1.5250000e+03   2.2000000e+02  -9.8851677e+00
   1.5250000e+03   2.3500000e+02  -9.8856086e+00
   1.5250000e+03   2.5000000e+02  -9.8865425e+00
   1.5250000e+03   2.6500000e+02  -9.8859635e+00
   1.5250000e+03   2.8000000e+02  -9.8848559e+00
   1.5250000e+03   2.9500000e+02  -9.8853160e+00
   1.5250000e+03   3.1000000e+02  -9.8852165e+00
   1.5250000e+03   3.2500000e+02  -9.8857567e+00
   1.5250000e+03   3.4000000e+02  -9.8862852e+00
   1.5250000e+03   3.5500000e+02  -9.8849858e+00
   1.5250000e+03   3.7000000e+02  -9.8863376e+00
   1.5250000e+03   3.8500000e+02  -9.8853885e+00
   1.5250000e+03   4.0000000e+02  -9.8855262e+00
   1.5250000e+03   4.1500000e+02  -9.8864842e+00
   1.5250000e+03   4.3000000e+02  -9.8862490e+00
   1.5250000e+03   4.4500000e+02  -9.8863241e+00
   1.5250000e+03   4.6000000e+02  -9.8855919e+00
   1.5250000e+03   4.7500000e+02  -9.8851629e+00
   1.5250000e+03   4.9000000e+02  -9.8847434e+00
   1.5250000e+03   5.0500000e+02  -9.8862374e+00
   1.5250000e+03   5.2000000e+02  -9.8851087e+00
   1.5250000e+03   5.3500000e+02  -9.8856852e+00
   1.5250000e+03   5.5000000e+02  -9.8847580e+00
   1.5250000e+03   5.6500000e+02  -9.8857044e+00
   1.5250000e+03   5.8000000e+02  -9.8864705e+00
   1.5250000e+03   5.9500000e+02  -9.8846989e+00
   1.5250000e+03   6.1000000e+02  -9.8863834e+00
   1.5250000e+03   6.2500000e+02  -9.8850851e+00
   1.5250000e+03   6.4000000e+02  -9.8851963e+00
   1.5250000e+03   6.5500000e+02  -9.8866521e+00
   1.5250000e+03   6.7000000e+02  -9.8865000e+00
   1.5250000e+03   6.8500000e+02  -9.8847703e+00
   1.5250000e+03   7.0000000e+02  -9.8859212e+00
   1.5250000e+03   7.1500000e+02  -9.8865866e+00
   1.5250000e+03   7.3000000e+02  -9.8865798e+00
   1.5250000e+03   7.4500000e+02  -9.8855101e+00
   1.5250000e+03   7.6000000e+02  -9.8857464e+00
   1.5250000e+03   7.7500000e+02  -9.8851029e+00
   1.5250000e+03   7.9000000e+02  -9.8856915e+00
   1.5250000e+03   8.0500000e+02  -9.8852837e+00
   1.5250000e+03   8.2000000e+02  -9.8851341e+00
   1.5250000e+03   8.3500000e+02  -9.8855890e+00
   1.5250000e+03   8.5000000e+02  -9.8859085e+00
   1.5250000e+03   8.6500000e+02  -9.8854549e+00
   1.5250000e+03   8.8000000e+02  -9.8857815e+00
   1.5250000e+03   8.9500000e+02  -9.8859294e+00
   1.5250000e+03   9.1000000e+02  -9.8849216e+00
   1.5250000e+03   9.2500000e+02  -9.8857869e+00
   1.5250000e+03   9.4000000e+02  -9.8857160e+00
   1.5250000e+03   9.5500000e+02  -9.8851551e+00
   1.5250000e+03   9.7000000e+02  -9.8862703e+00
   1.5250000e+03   9.8500000e+02  -9.8848292e+00
   1.5250000e+03   1.0000000e+03  -9.8851272e+00
   1.5250000e+03   1.0150000e+03  -9.8856395e+00
   1.5250000e+03   1.0300000e+03  -9.8861276e+00
   1.5250000e+03   1.0450000e+03  -9.8848806e+00
   1.5250000e+03   1.0600000e+03  -9.8866451e+00
   1.5250000e+03   1.0750000e+03  -9.8859716e+00
   1.5250000e+03   1.0900000e+03  -9.8859047e+00
   1.5400000e+03   1.0000000e+02  -9.8854195e+00
   1.5400000e+03   1.1500000e+02  -9.8853081e+00
   1.5400000e+03   1.3000000e+02  -9.8850985e+00
   1.5400000e+03   1.4500000e+02  -9.8844801e+00
   1.5400000e+03   1.6000000e+02  -9.8841278e+00
   1.5400000e+03   1.7500000e+02  -9.8851447e+00
   1.5400000e+03   1.9000000e+02  -9.8843924e+00
   1.5400000e+03   2.0500000e+02  -9.8840720e+00
   1.5400000e+03   2.2000000e+02  -9.8839599e+00
   1.5400000e+03   2.3500000e+02  -9.8842389e+00
   1.5400000e+03   2.5000000e+02  -9.8850657e+00
   1.5400000e+03   2.6500000e+02  -9.8840852e+00
   1.5400000e+03   2.8000000e+02  -9.8846553e+00
   1.5400000e+03   2.9500000e+02  -9.8853262e+00
   1.5400000e+03   3.1000000e+02  -9.8839537e+00
   1.5400000e+03   3.2500000e+02  -9.8845659e+00
   1.5400000e+03   3.4000000e+02  -9.8841097e+00
   1.5400000e+03   3.5500000e+02  -9.8835103e+00
   1.5400000e+03   3.7000000e+02  -9.8841658e+00
   1.5400000e+03   3.8500000e+02  -9.8854182e+00
   1.5400000e+03   4.0000000e+02  -9.8852591e+00
   1.5400000e+03   4.1500000e+02  -9.8835442e+00
   1.5400000e+03   4.3000000e+02  -9.8839106e+00
   1.5400000e+03   4.4500000e+02  -9.8836940e+00
   1.5400000e+03   4.6000000e+02  -9.8841996e+00
   1.5400000e+03   4.7500000e+02  -9.8853322e+00
   1.5400000e+03   4.9000000e+02  -9.8835189e+00
   1.5400000e+03   5.0500000e+02  -9.8845724e+00
   1.5400000e+03   5.2000000e+02  -9.8839439e+00
   1.5400000e+03   5.3500000e+02  -9.8839263e+00
   1.5400000e+03   5.5000000e+02  -9.8836197e+00
   1.5400000e+03   5.6500000e+02  -9.8852854e+00
   1.5400000e+03   5.8000000e+02  -9.8851706e+00
   1.5400000e+03   5.9500000e+02  -9.8851794e+00
   1.5400000e+03   6.1000000e+02  -9.8846340e+00
   1.5400000e+03   6.2500000e+02  -9.8840735e+00
   1.5400000e+03   6.4000000e+02  -9.8854302e+00
   1.5400000e+03   6.5500000e+02  -9.8844085e+00
   1.5400000e+03   6.7000000e+02  -9.8835361e+00
   1.5400000e+03   6.8500000e+02  -9.8839035e+00
   1.5400000e+03   7.0000000e+02  -9.8851217e+00
   1.5400000e+03   7.1500000e+02  -9.8843729e+00
   1.5400000e+03   7.3000000e+02  -9.8836018e+00
   1.5400000e+03   7.4500000e+02  -9.8838585e+00
   1.5400000e+03   7.6000000e+02  -9.8846200e+00
   1.5400000e+03   7.7500000e+02  -9.8846029e+00
   1.5400000e+03   7.9000000e+02  -9.8851590e+00
   1.5400000e+03   8.0500000e+02  -9.8839775e+00
   1.5400000e+03   8.2000000e+02  -9.8836746e+00
   1.5400000e+03   8.3500000e+02  -9.8840410e+00
   1.5400000e+03   8.5000000e+02  -9.8846329e+00
   1.5400000e+03   8.6500000e+02  -9.8846373e+00
   1.5400000e+03   8.8000000e+02  -9.8835934e+00
   1.5400000e+03   8.9500000e+02  -9.8850266e+00
   1.5400000e+03   9.1000000e+02  -9.8849446e+00
   1.5400000e+03   9.2500000e+02  -9.8841056e+00
   1.5400000e+03   9.4000000e+02  -9.8845142e+00
   1.5400000e+03   9.5500000e+02  -9.8851539e+00
   1.5400000e+03   9.7000000e+02  -9.8837854e+00
   1.5400000e+03   9.8500000e+02  -9.8853994e+00
   1.5400000e+03   1.0000000e+03  -9.8840671e+00
   1.5400000e+03   1.0150000e+03  -9.8838924e+00
   1.5400000e+03   1.0300000e+03  -9.8834869e+00
   1.5400000e+03   1.0450000e+03  -9.8839719e+00
   1.5400000e+03   1.0600000e+03  -9.8839388e+00
   1.5400000e+03   1.0750000e+03  -9.8854050e+00
   1.5400000e+03   1.0900000e+03  -9.8843553e+00
   1.5550000e+03   1.0000000e+02  -9.8840031e+00
   1.5550000e+03   1.1500000e+02  -9.8842662e+00
   1.5550000e+03   1.3000000e+02  -9.8841165e+00
   1.5550000e+03   1.4500000e+02  -9.8836423e+00
   1.5550000e+03   1.6000000e+02  -9.8833352e+00
   1.5550000e+03   1.7500000e+02  -9.8826450e+00
   1.5550000e+03   1.9000000e+02  -9.8825483e+00
   1.5550000e+03   2.0500000e+02  -9.8838604e+00
   1.5550000e+03   2.2000000e+02  -9.8826830e+00
   1.5550000e+03   2.3500000e+02  -9.8831805e+00
   1.5550000e+03   2.5000000e+02  -9.8838249e+00
   1.5550000e+03   2.6500000e+02  -9.8824868e+00
   1.5550000e+03   2.8000000e+02  -9.8840049e+00
   1.5550000e+03   2.9500000e+02  -9.8831107e+00
   1.5550000e+03   3.1000000e+02  -9.8823765e+00
   1.5550000e+03   3.2500000e+02  -9.8831095e+00
   1.5550000e+03   3.4000000e+02  -9.8833962e+00
   1.5550000e+03   3.5500000e+02  -9.8826386e+00
   1.5550000e+03   3.7000000e+02  -9.8829253e+00
   1.5550000e+03   3.8500000e+02  -9.8826751e+00
   1.5550000e+03   4.0000000e+02  -9.8828447e+00
   1.5550000e+03   4.1500000e+02  -9.8837720e+00
   1.5550000e+03   4.3000000e+02  -9.8835603e+00
   1.5550000e+03   4.4500000e+02  -9.8834180e+00
   1.5550000e+03   4.6000000e+02  -9.8836805e+00
   1.5550000e+03   4.7500000e+02  -9.8836710e+00
   1.5550000e+03   4.9000000e+02  -9.8836318e+00
   1.5550000e+03   5.0500000e+02  -9.8828142e+00
   1.5550000e+03   5.2000000e+02  -9.8840051e+00
   1.5550000e+03   5.3500000e+02  -9.8837549e+00
   1.5550000e+03   5.5000000e+02  -9.8830449e+00
   1.5550000e+03   5.6500000e+02  -9.8828419e+00
   1.5550000e+03   5.8000000e+02  -9.8830489e+00
   1.5550000e+03   5.9500000e+02  -9.8840745e+00
   1.5550000e+03   6.1000000e+02  -9.8826503e+00
   1.5550000e+03   6.2500000e+02  -9.8832411e+00
   1.5550000e+03   6.4000000e+02  -9.8831364e+00
   1.5550000e+03   6.5500000e+02  -9.8828328e+00
   1.5550000e+03   6.7000000e+02  -9.8837925e+00
   1.5550000e+03   6.8500000e+02  -9.8828934e+00
   1.5550000e+03   7.0000000e+02  -9.8830843e+00
   1.5550000e+03   7.1500000e+02  -9.8838282e+00
   1.5550000e+03   7.3000000e+02  -9.8836452e+00
   1.5550000e+03   7.4500000e+02  -9.8839384e+00
   1.5550000e+03   7.6000000e+02  -9.8829739e+00
   1.5550000e+03   7.7500000e+02  -9.8826408e+00
   1.5550000e+03   7.9000000e+02  -9.8822706e+00
   1.5550000e+03   8.0500000e+02  -9.8825438e+00
   1.5550000e+03   8.2000000e+02  -9.8842576e+00
   1.5550000e+03   8.3500000e+02  -9.8839656e+00
   1.5550000e+03   8.5000000e+02  -9.8837250e+00
   1.5550000e+03   8.6500000e+02  -9.8838402e+00
   1.5550000e+03   8.8000000e+02  -9.8830744e+00
   1.5550000e+03   8.9500000e+02  -9.8841403e+00
   1.5550000e+03   9.1000000e+02  -9.8827986e+00
   1.5550000e+03   9.2500000e+02  -9.8828291e+00
   1.5550000e+03   9.4000000e+02  -9.8835943e+00
   1.5550000e+03   9.5500000e+02  -9.8842264e+00
   1.5550000e+03   9.7000000e+02  -9.8825013e+00
   1.5550000e+03   9.8500000e+02  -9.8825751e+00
   1.5550000e+03   1.0000000e+03  -9.8834770e+00
   1.5550000e+03   1.0150000e+03  -9.8836310e+00
   1.5550000e+03   1.0300000e+03  -9.8823174e+00
   1.5550000e+03   1.0450000e+03  -9.8826562e+00
   1.5550000e+03   1.0600000e+03  -9.8841371e+00
   1.5550000e+03   1.0750000e+03  -9.8828932e+00
   1.5550000e+03   1.0900000e+03  -9.8827264e+00
   1.5700000e+03   1.0000000e+02  -9.8817494e+00
   1.5700000e+03   1.1500000e+02  -9.8814537e+00
   1.5700000e+03   1.3000000e+02  -9.8829883e+00
   1.5700000e+03   1.4500000e+02  -9.8819743e+00
   1.5700000e+03   1.6000000e+02  -9.8828127e+00
   1.5700000e+03   1.7500000e+02  -9.8810680e+00
   1.5700000e+03   1.9000000e+02  -9.8829454e+00
   1.5700000e+03   2.0500000e+02  -9.8816714e+00
   1.5700000e+03   2.2000000e+02  -9.8819950e+00
   1.5700000e+03   2.3500000e+02  -9.8816307e+00
   1.5700000e+03   2.5000000e+02  -9.8816596e+00
   1.5700000e+03   2.6500000e+02  -9.8819373e+00
   1.5700000e+03   2.8000000e+02  -9.8818376e+00
   1.5700000e+03   2.9500000e+02  -9.8815381e+00
   1.5700000e+03   3.1000000e+02  -9.8823758e+00
   1.5700000e+03   3.2500000e+02  -9.8815583e+00
   1.5700000e+03   3.4000000e+02  -9.8829179e+00
   1.5700000e+03   3.5500000e+02  -9.8814679e+00
   1.5700000e+03   3.7000000e+02  -9.8814278e+00
   1.5700000e+03   3.8500000e+02  -9.8811299e+00
   1.5700000e+03   4.0000000e+02  -9.8811540e+00
   1.5700000e+03   4.1500000e+02  -9.8823237e+00
   1.5700000e+03   4.3000000e+02  -9.8815043e+00
   1.5700000e+03   4.4500000e+02  -9.8813009e+00
   1.5700000e+03   4.6000000e+02  -9.8814216e+00
   1.5700000e+03   4.7500000e+02  -9.8813691e+00
   1.5700000e+03   4.9000000e+02  -9.8815034e+00
   1.5700000e+03   5.0500000e+02  -9.8815360e+00
   1.5700000e+03   5.2000000e+02  -9.8818646e+00
   1.5700000e+03   5.3500000e+02  -9.8822989e+00
   1.5700000e+03   5.5000000e+02  -9.8819183e+00
   1.5700000e+03   5.6500000e+02  -9.8812990e+00
   1.5700000e+03   5.8000000e+02  -9.8827027e+00
   1.5700000e+03   5.9500000e+02  -9.8815919e+00
